x y Depth Vs
297.1849 424.9265 36.1 3.882
297.1849 424.9265 36.2 3.882
297.1849 424.9265 36.3 3.882
297.1849 424.9265 36.4 3.882
297.1849 424.9265 36.5 3.882
297.1849 424.9265 36.6 3.882
297.1849 424.9265 36.7 3.882
297.1849 424.9265 36.8 3.882
297.1849 424.9265 36.9 3.882
297.1849 424.9265 37.0 3.882
297.1849 424.9265 37.1 3.882
297.1849 424.9265 37.2 3.882
297.1849 424.9265 37.3 3.882
297.1849 424.9265 37.4 3.882
297.1849 424.9265 37.5 3.882
297.1849 424.9265 37.6 3.882
297.1849 424.9265 37.7 3.882
297.1849 424.9265 37.8 3.882
297.1849 424.9265 37.9 3.882
297.1849 424.9265 38.0 3.882
297.1849 424.9265 38.1 3.882
297.1849 424.9265 38.2 3.882
297.1849 424.9265 38.3 3.882
297.1849 424.9265 38.4 3.882
297.1849 424.9265 38.5 3.882
297.1849 424.9265 38.6 3.882
297.1849 424.9265 38.7 3.882
297.1849 424.9265 38.8 3.882
297.1849 424.9265 38.9 3.882
297.1849 424.9265 39.0 3.882
297.1849 424.9265 39.1 4.152
297.1849 424.9265 39.2 4.152
297.1849 424.9265 39.3 4.152
297.1849 424.9265 39.4 4.152
297.1849 424.9265 39.5 4.152
297.1849 424.9265 39.6 4.152
297.1849 424.9265 39.7 4.152
297.1849 424.9265 39.8 4.152
297.1849 424.9265 39.9 4.152
297.1849 424.9265 40.0 4.152
297.1849 424.9265 40.1 4.152
297.1849 424.9265 40.2 4.152
297.1849 424.9265 40.3 4.152
297.1849 424.9265 40.4 4.152
297.1849 424.9265 40.5 4.152
297.1849 424.9265 40.6 4.152
297.1849 424.9265 40.7 4.152
297.1849 424.9265 40.8 4.152
297.1849 424.9265 40.9 4.152
297.1849 424.9265 41.0 4.152
297.1849 424.9265 41.1 4.152
297.1849 424.9265 41.2 4.152
297.1849 424.9265 41.3 4.152
297.1849 424.9265 41.4 4.152
297.1849 424.9265 41.5 4.152
297.1849 424.9265 41.6 4.152
297.1849 424.9265 41.7 4.152
297.1849 424.9265 41.8 4.152
297.1849 424.9265 41.9 4.152
297.1849 424.9265 42.0 4.152
297.1849 424.9265 42.1 4.152
297.1849 424.9265 42.2 4.152
297.1849 424.9265 42.3 4.152
297.1849 424.9265 42.4 4.152
297.1849 424.9265 42.5 4.152
297.1849 424.9265 42.6 4.152
297.1849 424.9265 42.7 4.152
297.1849 424.9265 42.8 4.152
297.1849 424.9265 42.9 4.152
297.1849 424.9265 43.0 4.152
297.1849 424.9265 43.1 4.152
297.1849 424.9265 43.2 4.152
297.1849 424.9265 43.3 4.152
297.1849 424.9265 43.4 4.152
297.1849 424.9265 43.5 4.152
297.1849 424.9265 43.6 4.152
297.1849 424.9265 43.7 4.152
297.1849 424.9265 43.8 4.152
297.1849 424.9265 43.9 4.152
297.1849 424.9265 44.0 4.152
297.1849 424.9265 44.1 4.152
297.1849 424.9265 44.2 4.152
297.1849 424.9265 44.3 4.152
297.1849 424.9265 44.4 4.152
297.1849 424.9265 44.5 4.152
297.1849 424.9265 44.6 4.152
297.1849 424.9265 44.7 4.152
297.1849 424.9265 44.8 4.152
297.1849 424.9265 44.9 4.152
297.1849 424.9265 45.0 4.152
297.1849 424.9265 45.1 4.152
297.1849 424.9265 45.2 4.152
297.1849 424.9265 45.3 4.152
297.1849 424.9265 45.4 4.152
297.1849 424.9265 45.5 4.152
297.1849 424.9265 45.6 4.152
297.1849 424.9265 45.7 4.152
297.1849 424.9265 45.8 4.152
297.1849 424.9265 45.9 4.152
297.1849 424.9265 46.0 4.152
297.1849 424.9265 46.1 4.152
297.1849 424.9265 46.2 4.152
297.1849 424.9265 46.3 4.152
297.1849 424.9265 46.4 4.152
297.1849 424.9265 46.5 4.152
297.1849 424.9265 46.6 4.152
297.1849 424.9265 46.7 4.152
297.1849 424.9265 46.8 4.152
297.1849 424.9265 46.9 4.152
297.1849 424.9265 47.0 4.152
297.1849 424.9265 47.1 4.152
297.1849 424.9265 47.2 4.152
297.1849 424.9265 47.3 4.152
297.1849 424.9265 47.4 4.152
297.1849 424.9265 47.5 4.152
297.1849 424.9265 47.6 4.152
297.1849 424.9265 47.7 4.152
297.1849 424.9265 47.8 4.152
297.1849 424.9265 47.9 4.152
297.1849 424.9265 48.0 4.152
297.1849 424.9265 48.1 4.152
297.1849 424.9265 48.2 4.152
297.1849 424.9265 48.3 4.152
297.1849 424.9265 48.4 4.152
297.1849 424.9265 48.5 4.152
297.1849 424.9265 48.6 4.152
297.1849 424.9265 48.7 4.152
297.1849 424.9265 48.8 4.152
297.1849 424.9265 48.9 4.152
297.1849 424.9265 49.0 4.152
297.1849 424.9265 49.1 4.152
297.1849 424.9265 49.2 4.152
297.1849 424.9265 49.3 4.152
297.1849 424.9265 49.4 4.152
297.1849 424.9265 49.5 4.152
297.1849 424.9265 49.6 4.152
297.1849 424.9265 49.7 4.152
297.1849 424.9265 49.8 4.152
297.1849 424.9265 49.9 4.152
297.1849 424.9265 50.0 4.152
297.1849 424.9265 50.1 4.152
297.1849 424.9265 50.2 4.152
297.1849 424.9265 50.3 4.152
297.1849 424.9265 50.4 4.152
297.1849 424.9265 50.5 4.152
297.1849 424.9265 50.6 4.152
297.1849 424.9265 50.7 4.152
297.1849 424.9265 50.8 4.152
297.1849 424.9265 50.9 4.152
297.1849 424.9265 51.0 4.152
297.1849 424.9265 51.1 4.152
297.1849 424.9265 51.2 4.152
297.1849 424.9265 51.3 4.152
297.1849 424.9265 51.4 4.152
297.1849 424.9265 51.5 4.152
297.1849 424.9265 51.6 4.152
297.1849 424.9265 51.7 4.152
297.1849 424.9265 51.8 4.152
297.1849 424.9265 51.9 4.152
297.1849 424.9265 52.0 4.152
297.1849 424.9265 52.1 4.152
297.1849 424.9265 52.2 4.776
297.1849 424.9265 52.3 4.776
297.1849 424.9265 52.4 4.776
297.1849 424.9265 52.5 4.776
297.1849 424.9265 52.6 4.776
297.1849 424.9265 52.7 4.776
297.1849 424.9265 52.8 4.776
297.1849 424.9265 52.9 4.776
297.1849 424.9265 53.0 4.776
297.1849 424.9265 53.1 4.776
297.1849 424.9265 53.2 4.776
297.1849 424.9265 53.3 4.776
297.1849 424.9265 53.4 4.776
297.1849 424.9265 53.5 4.776
297.1849 424.9265 53.6 4.776
297.1849 424.9265 53.7 4.776
297.1849 424.9265 53.8 4.776
297.1849 424.9265 53.9 4.776
297.1849 424.9265 54.0 4.776
297.1849 424.9265 54.1 4.776
297.1849 424.9265 54.2 4.776
297.1849 424.9265 54.3 4.776
297.1849 424.9265 54.4 4.776
297.1849 424.9265 54.5 4.776
297.1849 424.9265 54.6 4.776
297.1849 424.9265 54.7 4.776
297.1849 424.9265 54.8 4.776
297.1849 424.9265 54.9 4.776
297.1849 424.9265 55.0 4.776
297.1849 424.9265 55.1 4.776
297.1849 424.9265 55.2 4.776
297.1849 424.9265 55.3 4.776
297.1849 424.9265 55.4 4.776
297.1849 424.9265 55.5 4.776
297.1849 424.9265 55.6 4.776
297.1849 424.9265 55.7 4.776
297.1849 424.9265 55.8 4.776
297.1849 424.9265 55.9 4.776
297.1849 424.9265 56.0 4.776
297.1849 424.9265 56.1 4.776
297.1849 424.9265 56.2 4.776
297.1849 424.9265 56.3 4.776
297.1849 424.9265 56.4 4.776
297.1849 424.9265 56.5 4.776
297.1849 424.9265 56.6 4.776
297.1849 424.9265 56.7 4.776
297.1849 424.9265 56.8 4.776
297.1849 424.9265 56.9 4.776
297.1849 424.9265 57.0 4.776
297.1849 424.9265 57.1 4.776
297.1849 424.9265 57.2 4.776
297.1849 424.9265 57.3 4.776
297.1849 424.9265 57.4 4.776
297.1849 424.9265 57.5 4.776
297.1849 424.9265 57.6 4.776
297.1849 424.9265 57.7 4.776
297.1849 424.9265 57.8 4.776
297.1849 424.9265 57.9 4.776
297.1849 424.9265 58.0 4.776
297.1849 424.9265 58.1 4.776
297.1849 424.9265 58.2 4.776
297.1849 424.9265 58.3 4.776
297.1849 424.9265 58.4 4.776
297.1849 424.9265 58.5 4.776
297.1849 424.9265 58.6 4.776
297.1849 424.9265 58.7 4.776
297.1849 424.9265 58.8 4.776
297.1849 424.9265 58.9 4.776
297.1849 424.9265 59.0 4.776
297.1849 424.9265 59.1 4.776
297.1849 424.9265 59.2 4.776
297.1849 424.9265 59.3 4.776
297.1849 424.9265 59.4 4.776
297.1849 424.9265 59.5 4.776
297.1849 424.9265 59.6 4.776
297.1849 424.9265 59.7 4.776
297.1849 424.9265 59.8 4.776
297.1849 424.9265 59.9 4.776
297.1849 424.9265 60.0 4.776
297.1849 424.9265 60.1 4.776
297.1849 424.9265 60.2 4.776
297.1849 424.9265 60.3 4.776
297.1849 424.9265 60.4 4.776
297.1849 424.9265 60.5 4.776
297.1849 424.9265 60.6 4.776
297.1849 424.9265 60.7 4.776
297.1849 424.9265 60.8 4.776
297.1849 424.9265 60.9 4.776
297.1849 424.9265 61.0 4.776
297.1849 424.9265 61.1 4.776
297.1849 424.9265 61.2 4.776
297.1849 424.9265 61.3 4.776
297.1849 424.9265 61.4 4.776
297.1849 424.9265 61.5 4.776
297.1849 424.9265 61.6 4.776
297.1849 424.9265 61.7 4.776
297.1849 424.9265 61.8 4.776
297.1849 424.9265 61.9 4.776
297.1849 424.9265 62.0 4.776
297.1849 424.9265 62.1 4.776
297.1849 424.9265 62.2 4.776
297.1849 424.9265 62.3 4.776
297.1849 424.9265 62.4 4.776
297.1849 424.9265 62.5 4.776
297.1849 424.9265 62.6 4.776
297.1849 424.9265 62.7 4.776
297.1849 424.9265 62.8 4.776
297.1849 424.9265 62.9 4.776
297.1849 424.9265 63.0 4.776
297.1849 424.9265 63.1 4.776
297.1849 424.9265 63.2 4.776
297.1849 424.9265 63.3 4.776
297.1849 424.9265 63.4 4.776
297.1849 424.9265 63.5 4.776
297.1849 424.9265 63.6 4.776
297.1849 424.9265 63.7 4.776
297.1849 424.9265 63.8 4.776
297.1849 424.9265 63.9 4.776
297.1849 424.9265 64.0 4.776
297.1849 424.9265 64.1 4.776
297.1849 424.9265 64.2 4.776
297.1849 424.9265 64.3 4.776
297.1849 424.9265 64.4 4.776
297.1849 424.9265 64.5 4.776
297.1849 424.9265 64.6 4.776
297.1849 424.9265 64.7 4.776
297.1849 424.9265 64.8 4.776
297.1849 424.9265 64.9 4.776
297.1849 424.9265 65.0 4.776
297.1849 424.9265 65.1 4.776
297.1849 424.9265 65.2 4.776
297.1849 424.9265 65.3 4.776
297.1849 424.9265 65.4 4.776
297.1849 424.9265 65.5 4.776
297.1849 424.9265 65.6 4.776
297.1849 424.9265 65.7 4.776
297.1849 424.9265 65.8 4.776
297.1849 424.9265 65.9 4.776
297.1849 424.9265 66.0 4.776
297.1849 424.9265 66.1 4.776
297.1849 424.9265 66.2 4.776
297.1849 424.9265 66.3 4.776
297.1849 424.9265 66.4 4.776
297.1849 424.9265 66.5 4.776
297.1849 424.9265 66.6 4.776
297.1849 424.9265 66.7 4.776
297.1849 424.9265 66.8 4.776
297.1849 424.9265 66.9 4.776
297.1849 424.9265 67.0 4.776
297.1849 424.9265 67.1 4.776
297.1849 424.9265 67.2 4.776
297.1849 424.9265 67.3 4.776
297.1849 424.9265 67.4 4.776
297.1849 424.9265 67.5 4.776
297.1849 424.9265 67.6 4.776
297.1849 424.9265 67.7 4.776
297.1849 424.9265 67.8 4.776
297.1849 424.9265 67.9 4.776
297.1849 424.9265 68.0 4.776
297.1849 424.9265 68.1 4.776
297.1849 424.9265 68.2 4.776
297.1849 424.9265 68.3 4.776
297.1849 424.9265 68.4 4.776
297.1849 424.9265 68.5 4.776
297.1849 424.9265 68.6 4.776
297.1849 424.9265 68.7 4.776
297.1849 424.9265 68.8 4.776
297.1849 424.9265 68.9 4.776
297.1849 424.9265 69.0 4.776
297.1849 424.9265 69.1 4.776
297.1849 424.9265 69.2 4.776
297.1849 424.9265 69.3 4.776
297.1849 424.9265 69.4 4.776
297.1849 424.9265 69.5 4.776
297.1849 424.9265 69.6 4.776
297.1849 424.9265 69.7 4.776
297.1849 424.9265 69.8 4.776
297.1849 424.9265 69.9 4.776
297.1849 424.9265 70.0 4.776
227.9105 354.8758 -6.0 3.278
227.9105 354.8758 -5.9 3.278
227.9105 354.8758 -5.8 3.278
227.9105 354.8758 -5.7 3.278
227.9105 354.8758 -5.6 3.278
227.9105 354.8758 -5.5 3.278
227.9105 354.8758 -5.4 3.278
227.9105 354.8758 -5.3 3.278
227.9105 354.8758 -5.2 3.278
227.9105 354.8758 -5.1 3.278
227.9105 354.8758 -5.0 3.278
227.9105 354.8758 -4.9 3.278
227.9105 354.8758 -4.8 3.278
227.9105 354.8758 -4.7 3.278
227.9105 354.8758 -4.6 3.278
227.9105 354.8758 -4.5 3.278
227.9105 354.8758 -4.4 3.278
227.9105 354.8758 -4.3 3.278
227.9105 354.8758 -4.2 3.278
227.9105 354.8758 -4.1 3.278
227.9105 354.8758 -4.0 3.278
227.9105 354.8758 -3.9 3.278
227.9105 354.8758 -3.8 3.278
227.9105 354.8758 -3.7 3.278
227.9105 354.8758 -3.6 3.278
227.9105 354.8758 -3.5 3.278
227.9105 354.8758 -3.4 3.278
227.9105 354.8758 -3.3 3.278
227.9105 354.8758 -3.2 3.278
227.9105 354.8758 -3.1 3.278
227.9105 354.8758 -3.0 3.278
227.9105 354.8758 -2.9 3.278
227.9105 354.8758 -2.8 3.278
227.9105 354.8758 -2.7 3.278
227.9105 354.8758 -2.6 3.278
227.9105 354.8758 -2.5 3.278
227.9105 354.8758 -2.4 3.278
227.9105 354.8758 -2.3 3.278
227.9105 354.8758 -2.2 3.278
227.9105 354.8758 -2.1 3.278
227.9105 354.8758 -2.0 3.278
227.9105 354.8758 -1.9 3.278
227.9105 354.8758 -1.8 3.278
227.9105 354.8758 -1.7 3.278
227.9105 354.8758 -1.6 3.278
227.9105 354.8758 -1.5 3.278
227.9105 354.8758 -1.4 3.278
227.9105 354.8758 -1.3 3.278
227.9105 354.8758 -1.2 3.278
227.9105 354.8758 -1.1 3.278
227.9105 354.8758 -1.0 3.278
227.9105 354.8758 -0.9 3.278
227.9105 354.8758 -0.8 3.278
227.9105 354.8758 -0.7 3.278
227.9105 354.8758 -0.6 3.278
227.9105 354.8758 -0.5 3.278
227.9105 354.8758 -0.4 3.278
227.9105 354.8758 -0.3 3.278
227.9105 354.8758 -0.2 3.278
227.9105 354.8758 -0.1 3.278
227.9105 354.8758 0.0 3.278
227.9105 354.8758 0.1 3.278
227.9105 354.8758 0.2 3.278
227.9105 354.8758 0.3 3.278
227.9105 354.8758 0.4 3.278
227.9105 354.8758 0.5 3.278
227.9105 354.8758 0.6 3.278
227.9105 354.8758 0.7 3.278
227.9105 354.8758 0.8 3.278
227.9105 354.8758 0.9 3.278
227.9105 354.8758 1.0 3.278
227.9105 354.8758 1.1 3.278
227.9105 354.8758 1.2 3.278
227.9105 354.8758 1.3 3.278
227.9105 354.8758 1.4 3.278
227.9105 354.8758 1.5 3.278
227.9105 354.8758 1.6 3.445
227.9105 354.8758 1.7 3.445
227.9105 354.8758 1.8 3.445
227.9105 354.8758 1.9 3.445
227.9105 354.8758 2.0 3.445
227.9105 354.8758 2.1 3.445
227.9105 354.8758 2.2 3.445
227.9105 354.8758 2.3 3.445
227.9105 354.8758 2.4 3.445
227.9105 354.8758 2.5 3.445
227.9105 354.8758 2.6 3.445
227.9105 354.8758 2.7 3.445
227.9105 354.8758 2.8 3.445
227.9105 354.8758 2.9 3.445
227.9105 354.8758 3.0 3.445
227.9105 354.8758 3.1 3.445
227.9105 354.8758 3.2 3.445
227.9105 354.8758 3.3 3.445
227.9105 354.8758 3.4 3.578
227.9105 354.8758 3.5 3.578
227.9105 354.8758 3.6 3.578
227.9105 354.8758 3.7 3.578
227.9105 354.8758 3.8 3.578
227.9105 354.8758 3.9 3.578
227.9105 354.8758 4.0 3.578
227.9105 354.8758 4.1 3.578
227.9105 354.8758 4.2 3.578
227.9105 354.8758 4.3 3.578
227.9105 354.8758 4.4 3.578
227.9105 354.8758 4.5 3.578
227.9105 354.8758 4.6 3.578
227.9105 354.8758 4.7 3.578
227.9105 354.8758 4.8 3.578
227.9105 354.8758 4.9 3.578
227.9105 354.8758 5.0 3.578
227.9105 354.8758 5.1 3.578
227.9105 354.8758 5.2 3.578
227.9105 354.8758 5.3 3.578
227.9105 354.8758 5.4 3.578
227.9105 354.8758 5.5 3.578
227.9105 354.8758 5.6 3.578
227.9105 354.8758 5.7 3.578
227.9105 354.8758 5.8 3.578
227.9105 354.8758 5.9 3.578
227.9105 354.8758 6.0 3.578
227.9105 354.8758 6.1 3.578
227.9105 354.8758 6.2 3.578
227.9105 354.8758 6.3 3.578
227.9105 354.8758 6.4 3.578
227.9105 354.8758 6.5 3.578
227.9105 354.8758 6.6 3.578
227.9105 354.8758 6.7 3.578
227.9105 354.8758 6.8 3.578
227.9105 354.8758 6.9 3.578
227.9105 354.8758 7.0 3.578
227.9105 354.8758 7.1 3.578
227.9105 354.8758 7.2 3.578
227.9105 354.8758 7.3 3.578
227.9105 354.8758 7.4 3.578
227.9105 354.8758 7.5 3.578
227.9105 354.8758 7.6 3.578
227.9105 354.8758 7.7 3.578
227.9105 354.8758 7.8 3.578
227.9105 354.8758 7.9 3.578
227.9105 354.8758 8.0 3.578
227.9105 354.8758 8.1 3.578
227.9105 354.8758 8.2 3.578
227.9105 354.8758 8.3 3.578
227.9105 354.8758 8.4 3.578
227.9105 354.8758 8.5 3.578
227.9105 354.8758 8.6 3.578
227.9105 354.8758 8.7 3.578
227.9105 354.8758 8.8 3.578
227.9105 354.8758 8.9 3.578
227.9105 354.8758 9.0 3.578
227.9105 354.8758 9.1 3.578
227.9105 354.8758 9.2 3.578
227.9105 354.8758 9.3 3.578
227.9105 354.8758 9.4 3.578
227.9105 354.8758 9.5 3.578
227.9105 354.8758 9.6 3.578
227.9105 354.8758 9.7 3.578
227.9105 354.8758 9.8 3.578
227.9105 354.8758 9.9 3.578
227.9105 354.8758 10.0 3.578
227.9105 354.8758 10.1 3.578
227.9105 354.8758 10.2 3.578
227.9105 354.8758 10.3 3.578
227.9105 354.8758 10.4 3.578
227.9105 354.8758 10.5 3.578
227.9105 354.8758 10.6 3.578
227.9105 354.8758 10.7 3.578
227.9105 354.8758 10.8 3.578
227.9105 354.8758 10.9 3.578
227.9105 354.8758 11.0 3.578
227.9105 354.8758 11.1 3.578
227.9105 354.8758 11.2 3.578
227.9105 354.8758 11.3 3.578
227.9105 354.8758 11.4 3.578
227.9105 354.8758 11.5 3.578
227.9105 354.8758 11.6 3.578
227.9105 354.8758 11.7 3.578
227.9105 354.8758 11.8 3.578
227.9105 354.8758 11.9 3.578
227.9105 354.8758 12.0 3.578
227.9105 354.8758 12.1 3.578
227.9105 354.8758 12.2 3.578
227.9105 354.8758 12.3 3.578
227.9105 354.8758 12.4 3.578
227.9105 354.8758 12.5 3.578
227.9105 354.8758 12.6 3.578
227.9105 354.8758 12.7 3.578
227.9105 354.8758 12.8 3.578
227.9105 354.8758 12.9 3.578
227.9105 354.8758 13.0 3.578
227.9105 354.8758 13.1 3.578
227.9105 354.8758 13.2 3.578
227.9105 354.8758 13.3 3.578
227.9105 354.8758 13.4 3.578
227.9105 354.8758 13.5 3.578
227.9105 354.8758 13.6 3.578
227.9105 354.8758 13.7 3.578
227.9105 354.8758 13.8 3.578
227.9105 354.8758 13.9 3.578
227.9105 354.8758 14.0 3.67
227.9105 354.8758 14.1 3.67
227.9105 354.8758 14.2 3.67
227.9105 354.8758 14.3 3.67
227.9105 354.8758 14.4 3.67
227.9105 354.8758 14.5 3.67
227.9105 354.8758 14.6 3.67
227.9105 354.8758 14.7 3.67
227.9105 354.8758 14.8 3.67
227.9105 354.8758 14.9 3.67
227.9105 354.8758 15.0 3.67
227.9105 354.8758 15.1 3.67
227.9105 354.8758 15.2 3.67
227.9105 354.8758 15.3 3.67
227.9105 354.8758 15.4 3.67
227.9105 354.8758 15.5 3.67
227.9105 354.8758 15.6 3.67
227.9105 354.8758 15.7 3.67
227.9105 354.8758 15.8 3.67
227.9105 354.8758 15.9 3.67
227.9105 354.8758 16.0 3.67
227.9105 354.8758 16.1 3.67
227.9105 354.8758 16.2 3.67
227.9105 354.8758 16.3 3.67
227.9105 354.8758 16.4 3.67
227.9105 354.8758 16.5 3.67
227.9105 354.8758 16.6 3.67
227.9105 354.8758 16.7 3.67
227.9105 354.8758 16.8 3.67
227.9105 354.8758 16.9 3.67
227.9105 354.8758 17.0 3.67
227.9105 354.8758 17.1 3.67
227.9105 354.8758 17.2 3.67
227.9105 354.8758 17.3 3.67
227.9105 354.8758 17.4 3.67
227.9105 354.8758 17.5 3.67
227.9105 354.8758 17.6 3.67
227.9105 354.8758 17.7 3.67
227.9105 354.8758 17.8 3.67
227.9105 354.8758 17.9 3.67
227.9105 354.8758 18.0 3.67
227.9105 354.8758 18.1 3.67
227.9105 354.8758 18.2 3.67
227.9105 354.8758 18.3 3.67
227.9105 354.8758 18.4 3.67
227.9105 354.8758 18.5 3.67
227.9105 354.8758 18.6 3.67
227.9105 354.8758 18.7 3.67
227.9105 354.8758 18.8 3.67
227.9105 354.8758 18.9 3.67
227.9105 354.8758 19.0 3.67
227.9105 354.8758 19.1 3.67
227.9105 354.8758 19.2 3.67
227.9105 354.8758 19.3 3.67
227.9105 354.8758 19.4 3.67
227.9105 354.8758 19.5 3.67
227.9105 354.8758 19.6 3.67
227.9105 354.8758 19.7 3.67
227.9105 354.8758 19.8 3.67
227.9105 354.8758 19.9 3.67
227.9105 354.8758 20.0 3.67
227.9105 354.8758 20.1 3.67
227.9105 354.8758 20.2 3.67
227.9105 354.8758 20.3 3.67
227.9105 354.8758 20.4 3.67
227.9105 354.8758 20.5 3.67
227.9105 354.8758 20.6 3.67
227.9105 354.8758 20.7 3.67
227.9105 354.8758 20.8 3.67
227.9105 354.8758 20.9 3.67
227.9105 354.8758 21.0 3.67
227.9105 354.8758 21.1 3.67
227.9105 354.8758 21.2 3.67
227.9105 354.8758 21.3 3.67
227.9105 354.8758 21.4 3.67
227.9105 354.8758 21.5 3.67
227.9105 354.8758 21.6 3.784
227.9105 354.8758 21.7 3.784
227.9105 354.8758 21.8 3.784
227.9105 354.8758 21.9 3.784
227.9105 354.8758 22.0 3.784
227.9105 354.8758 22.1 3.784
227.9105 354.8758 22.2 3.784
227.9105 354.8758 22.3 3.784
227.9105 354.8758 22.4 3.784
227.9105 354.8758 22.5 3.784
227.9105 354.8758 22.6 3.784
227.9105 354.8758 22.7 3.784
227.9105 354.8758 22.8 3.784
227.9105 354.8758 22.9 3.784
227.9105 354.8758 23.0 3.784
227.9105 354.8758 23.1 3.784
227.9105 354.8758 23.2 3.784
227.9105 354.8758 23.3 3.784
227.9105 354.8758 23.4 3.784
227.9105 354.8758 23.5 3.784
227.9105 354.8758 23.6 3.784
227.9105 354.8758 23.7 3.784
227.9105 354.8758 23.8 3.784
227.9105 354.8758 23.9 3.784
227.9105 354.8758 24.0 3.784
227.9105 354.8758 24.1 3.784
227.9105 354.8758 24.2 3.784
227.9105 354.8758 24.3 3.784
227.9105 354.8758 24.4 3.784
227.9105 354.8758 24.5 3.784
227.9105 354.8758 24.6 3.784
227.9105 354.8758 24.7 3.784
227.9105 354.8758 24.8 3.784
227.9105 354.8758 24.9 3.784
227.9105 354.8758 25.0 3.784
227.9105 354.8758 25.1 3.784
227.9105 354.8758 25.2 3.784
227.9105 354.8758 25.3 3.784
227.9105 354.8758 25.4 3.784
227.9105 354.8758 25.5 3.784
227.9105 354.8758 25.6 3.784
227.9105 354.8758 25.7 3.784
227.9105 354.8758 25.8 3.784
227.9105 354.8758 25.9 3.784
227.9105 354.8758 26.0 3.784
227.9105 354.8758 26.1 3.784
227.9105 354.8758 26.2 3.784
227.9105 354.8758 26.3 3.784
227.9105 354.8758 26.4 3.784
227.9105 354.8758 26.5 3.784
227.9105 354.8758 26.6 3.784
227.9105 354.8758 26.7 3.784
227.9105 354.8758 26.8 3.784
227.9105 354.8758 26.9 3.784
227.9105 354.8758 27.0 3.784
227.9105 354.8758 27.1 3.784
227.9105 354.8758 27.2 3.784
227.9105 354.8758 27.3 3.784
227.9105 354.8758 27.4 3.784
227.9105 354.8758 27.5 3.784
227.9105 354.8758 27.6 3.784
227.9105 354.8758 27.7 3.784
227.9105 354.8758 27.8 3.784
227.9105 354.8758 27.9 3.784
227.9105 354.8758 28.0 3.784
227.9105 354.8758 28.1 3.784
227.9105 354.8758 28.2 3.784
227.9105 354.8758 28.3 3.784
227.9105 354.8758 28.4 3.784
227.9105 354.8758 28.5 3.784
227.9105 354.8758 28.6 3.784
227.9105 354.8758 28.7 3.784
227.9105 354.8758 28.8 3.784
227.9105 354.8758 28.9 3.784
227.9105 354.8758 29.0 3.784
227.9105 354.8758 29.1 3.784
227.9105 354.8758 29.2 3.784
227.9105 354.8758 29.3 3.784
227.9105 354.8758 29.4 3.784
227.9105 354.8758 29.5 3.784
227.9105 354.8758 29.6 3.784
227.9105 354.8758 29.7 3.784
227.9105 354.8758 29.8 3.784
227.9105 354.8758 29.9 3.784
227.9105 354.8758 30.0 3.784
227.9105 354.8758 30.1 3.784
227.9105 354.8758 30.2 3.784
227.9105 354.8758 30.3 3.784
227.9105 354.8758 30.4 3.784
227.9105 354.8758 30.5 3.784
227.9105 354.8758 30.6 3.784
227.9105 354.8758 30.7 3.784
227.9105 354.8758 30.8 3.784
227.9105 354.8758 30.9 3.784
227.9105 354.8758 31.0 3.784
227.9105 354.8758 31.1 3.784
227.9105 354.8758 31.2 3.784
227.9105 354.8758 31.3 3.784
227.9105 354.8758 31.4 3.784
227.9105 354.8758 31.5 3.784
227.9105 354.8758 31.6 3.784
227.9105 354.8758 31.7 3.784
227.9105 354.8758 31.8 3.784
227.9105 354.8758 31.9 3.784
227.9105 354.8758 32.0 3.784
227.9105 354.8758 32.1 3.784
227.9105 354.8758 32.2 3.784
227.9105 354.8758 32.3 3.784
227.9105 354.8758 32.4 3.784
227.9105 354.8758 32.5 3.784
227.9105 354.8758 32.6 3.784
227.9105 354.8758 32.7 3.784
227.9105 354.8758 32.8 3.784
227.9105 354.8758 32.9 3.784
227.9105 354.8758 33.0 3.784
227.9105 354.8758 33.1 3.784
227.9105 354.8758 33.2 3.784
227.9105 354.8758 33.3 3.784
227.9105 354.8758 33.4 3.784
227.9105 354.8758 33.5 3.784
227.9105 354.8758 33.6 3.784
227.9105 354.8758 33.7 3.784
227.9105 354.8758 33.8 3.784
227.9105 354.8758 33.9 3.784
227.9105 354.8758 34.0 3.784
227.9105 354.8758 34.1 3.784
227.9105 354.8758 34.2 3.784
227.9105 354.8758 34.3 3.784
227.9105 354.8758 34.4 3.784
227.9105 354.8758 34.5 3.784
227.9105 354.8758 34.6 3.784
227.9105 354.8758 34.7 3.784
227.9105 354.8758 34.8 3.784
227.9105 354.8758 34.9 3.784
227.9105 354.8758 35.0 3.784
227.9105 354.8758 35.1 3.784
227.9105 354.8758 35.2 3.784
227.9105 354.8758 35.3 3.784
227.9105 354.8758 35.4 3.784
227.9105 354.8758 35.5 3.784
227.9105 354.8758 35.6 3.784
227.9105 354.8758 35.7 3.784
227.9105 354.8758 35.8 3.784
227.9105 354.8758 35.9 3.784
227.9105 354.8758 36.0 3.784
227.9105 354.8758 36.1 3.784
227.9105 354.8758 36.2 3.784
227.9105 354.8758 36.3 3.784
227.9105 354.8758 36.4 3.784
227.9105 354.8758 36.5 3.784
227.9105 354.8758 36.6 3.784
227.9105 354.8758 36.7 3.784
227.9105 354.8758 36.8 3.784
227.9105 354.8758 36.9 3.784
227.9105 354.8758 37.0 3.784
227.9105 354.8758 37.1 3.784
227.9105 354.8758 37.2 3.793
227.9105 354.8758 37.3 3.793
227.9105 354.8758 37.4 3.793
227.9105 354.8758 37.5 3.793
227.9105 354.8758 37.6 3.793
227.9105 354.8758 37.7 3.793
227.9105 354.8758 37.8 3.793
227.9105 354.8758 37.9 3.793
227.9105 354.8758 38.0 3.793
227.9105 354.8758 38.1 3.793
227.9105 354.8758 38.2 3.793
227.9105 354.8758 38.3 3.793
227.9105 354.8758 38.4 3.793
227.9105 354.8758 38.5 3.793
227.9105 354.8758 38.6 3.793
227.9105 354.8758 38.7 3.793
227.9105 354.8758 38.8 3.793
227.9105 354.8758 38.9 3.793
227.9105 354.8758 39.0 3.793
227.9105 354.8758 39.1 3.793
227.9105 354.8758 39.2 3.793
227.9105 354.8758 39.3 3.793
227.9105 354.8758 39.4 3.793
227.9105 354.8758 39.5 3.793
227.9105 354.8758 39.6 3.793
227.9105 354.8758 39.7 3.793
227.9105 354.8758 39.8 3.793
227.9105 354.8758 39.9 3.793
227.9105 354.8758 40.0 3.793
227.9105 354.8758 40.1 3.793
227.9105 354.8758 40.2 3.793
227.9105 354.8758 40.3 3.793
227.9105 354.8758 40.4 3.793
227.9105 354.8758 40.5 3.793
227.9105 354.8758 40.6 3.793
227.9105 354.8758 40.7 3.793
227.9105 354.8758 40.8 3.793
227.9105 354.8758 40.9 3.793
227.9105 354.8758 41.0 3.793
227.9105 354.8758 41.1 3.793
227.9105 354.8758 41.2 3.793
227.9105 354.8758 41.3 3.793
227.9105 354.8758 41.4 3.793
227.9105 354.8758 41.5 3.793
227.9105 354.8758 41.6 3.793
227.9105 354.8758 41.7 3.793
227.9105 354.8758 41.8 3.793
227.9105 354.8758 41.9 3.793
227.9105 354.8758 42.0 3.793
227.9105 354.8758 42.1 3.793
227.9105 354.8758 42.2 3.793
227.9105 354.8758 42.3 3.793
227.9105 354.8758 42.4 3.793
227.9105 354.8758 42.5 3.793
227.9105 354.8758 42.6 3.793
227.9105 354.8758 42.7 3.793
227.9105 354.8758 42.8 3.793
227.9105 354.8758 42.9 3.793
227.9105 354.8758 43.0 3.793
227.9105 354.8758 43.1 3.793
227.9105 354.8758 43.2 3.793
227.9105 354.8758 43.3 3.793
227.9105 354.8758 43.4 3.793
227.9105 354.8758 43.5 3.793
227.9105 354.8758 43.6 3.793
227.9105 354.8758 43.7 3.793
227.9105 354.8758 43.8 3.793
227.9105 354.8758 43.9 3.793
227.9105 354.8758 44.0 3.793
227.9105 354.8758 44.1 3.793
227.9105 354.8758 44.2 3.793
227.9105 354.8758 44.3 3.793
227.9105 354.8758 44.4 3.793
227.9105 354.8758 44.5 3.793
227.9105 354.8758 44.6 3.793
227.9105 354.8758 44.7 3.793
227.9105 354.8758 44.8 3.793
227.9105 354.8758 44.9 3.793
227.9105 354.8758 45.0 3.793
227.9105 354.8758 45.1 3.793
227.9105 354.8758 45.2 3.793
227.9105 354.8758 45.3 3.793
227.9105 354.8758 45.4 3.793
227.9105 354.8758 45.5 3.793
227.9105 354.8758 45.6 3.793
227.9105 354.8758 45.7 3.793
227.9105 354.8758 45.8 3.793
227.9105 354.8758 45.9 3.793
227.9105 354.8758 46.0 3.793
227.9105 354.8758 46.1 3.793
227.9105 354.8758 46.2 3.793
227.9105 354.8758 46.3 3.793
227.9105 354.8758 46.4 3.793
227.9105 354.8758 46.5 3.793
227.9105 354.8758 46.6 3.793
227.9105 354.8758 46.7 3.793
227.9105 354.8758 46.8 3.793
227.9105 354.8758 46.9 3.793
227.9105 354.8758 47.0 3.793
227.9105 354.8758 47.1 3.793
227.9105 354.8758 47.2 3.793
227.9105 354.8758 47.3 3.793
227.9105 354.8758 47.4 3.793
227.9105 354.8758 47.5 3.793
227.9105 354.8758 47.6 3.793
227.9105 354.8758 47.7 3.793
227.9105 354.8758 47.8 3.793
227.9105 354.8758 47.9 3.793
227.9105 354.8758 48.0 3.793
227.9105 354.8758 48.1 3.793
227.9105 354.8758 48.2 3.793
227.9105 354.8758 48.3 3.793
227.9105 354.8758 48.4 3.793
227.9105 354.8758 48.5 3.793
227.9105 354.8758 48.6 3.793
227.9105 354.8758 48.7 3.793
227.9105 354.8758 48.8 4.256
227.9105 354.8758 48.9 4.256
227.9105 354.8758 49.0 4.256
227.9105 354.8758 49.1 4.256
227.9105 354.8758 49.2 4.256
227.9105 354.8758 49.3 4.256
227.9105 354.8758 49.4 4.256
227.9105 354.8758 49.5 4.256
227.9105 354.8758 49.6 4.256
227.9105 354.8758 49.7 4.256
227.9105 354.8758 49.8 4.256
227.9105 354.8758 49.9 4.256
227.9105 354.8758 50.0 4.256
227.9105 354.8758 50.1 4.256
227.9105 354.8758 50.2 4.256
227.9105 354.8758 50.3 4.256
227.9105 354.8758 50.4 4.256
227.9105 354.8758 50.5 4.256
227.9105 354.8758 50.6 4.256
227.9105 354.8758 50.7 4.256
227.9105 354.8758 50.8 4.256
227.9105 354.8758 50.9 4.256
227.9105 354.8758 51.0 4.256
227.9105 354.8758 51.1 4.256
227.9105 354.8758 51.2 4.256
227.9105 354.8758 51.3 4.256
227.9105 354.8758 51.4 4.256
227.9105 354.8758 51.5 4.256
227.9105 354.8758 51.6 4.256
227.9105 354.8758 51.7 4.256
227.9105 354.8758 51.8 4.256
227.9105 354.8758 51.9 4.256
227.9105 354.8758 52.0 4.256
227.9105 354.8758 52.1 4.256
227.9105 354.8758 52.2 4.256
227.9105 354.8758 52.3 4.256
227.9105 354.8758 52.4 4.256
227.9105 354.8758 52.5 4.256
227.9105 354.8758 52.6 4.256
227.9105 354.8758 52.7 4.256
227.9105 354.8758 52.8 4.256
227.9105 354.8758 52.9 4.256
227.9105 354.8758 53.0 4.256
227.9105 354.8758 53.1 4.256
227.9105 354.8758 53.2 4.256
227.9105 354.8758 53.3 4.256
227.9105 354.8758 53.4 4.256
227.9105 354.8758 53.5 4.256
227.9105 354.8758 53.6 4.256
227.9105 354.8758 53.7 4.256
227.9105 354.8758 53.8 4.256
227.9105 354.8758 53.9 4.256
227.9105 354.8758 54.0 4.256
227.9105 354.8758 54.1 4.256
227.9105 354.8758 54.2 4.256
227.9105 354.8758 54.3 4.256
227.9105 354.8758 54.4 4.256
227.9105 354.8758 54.5 4.256
227.9105 354.8758 54.6 4.256
227.9105 354.8758 54.7 4.256
227.9105 354.8758 54.8 4.256
227.9105 354.8758 54.9 4.256
227.9105 354.8758 55.0 4.256
227.9105 354.8758 55.1 4.256
227.9105 354.8758 55.2 4.256
227.9105 354.8758 55.3 4.256
227.9105 354.8758 55.4 4.256
227.9105 354.8758 55.5 4.256
227.9105 354.8758 55.6 4.256
227.9105 354.8758 55.7 4.256
227.9105 354.8758 55.8 4.256
227.9105 354.8758 55.9 4.256
227.9105 354.8758 56.0 4.256
227.9105 354.8758 56.1 4.256
227.9105 354.8758 56.2 4.256
227.9105 354.8758 56.3 4.256
227.9105 354.8758 56.4 4.256
227.9105 354.8758 56.5 4.256
227.9105 354.8758 56.6 4.256
227.9105 354.8758 56.7 4.256
227.9105 354.8758 56.8 4.256
227.9105 354.8758 56.9 4.256
227.9105 354.8758 57.0 4.256
227.9105 354.8758 57.1 4.256
227.9105 354.8758 57.2 4.256
227.9105 354.8758 57.3 4.256
227.9105 354.8758 57.4 4.256
227.9105 354.8758 57.5 4.256
227.9105 354.8758 57.6 4.256
227.9105 354.8758 57.7 4.256
227.9105 354.8758 57.8 4.256
227.9105 354.8758 57.9 4.256
227.9105 354.8758 58.0 4.256
227.9105 354.8758 58.1 4.256
227.9105 354.8758 58.2 4.256
227.9105 354.8758 58.3 4.256
227.9105 354.8758 58.4 4.256
227.9105 354.8758 58.5 4.256
227.9105 354.8758 58.6 4.256
227.9105 354.8758 58.7 4.256
227.9105 354.8758 58.8 4.256
227.9105 354.8758 58.9 4.256
227.9105 354.8758 59.0 4.256
227.9105 354.8758 59.1 4.256
227.9105 354.8758 59.2 4.256
227.9105 354.8758 59.3 4.256
227.9105 354.8758 59.4 4.256
227.9105 354.8758 59.5 4.256
227.9105 354.8758 59.6 4.256
227.9105 354.8758 59.7 4.256
227.9105 354.8758 59.8 4.256
227.9105 354.8758 59.9 4.256
227.9105 354.8758 60.0 4.256
227.9105 354.8758 60.1 4.256
227.9105 354.8758 60.2 4.256
227.9105 354.8758 60.3 4.256
227.9105 354.8758 60.4 4.256
227.9105 354.8758 60.5 4.256
227.9105 354.8758 60.6 4.256
227.9105 354.8758 60.7 4.256
227.9105 354.8758 60.8 4.256
227.9105 354.8758 60.9 4.256
227.9105 354.8758 61.0 4.256
227.9105 354.8758 61.1 4.256
227.9105 354.8758 61.2 4.256
227.9105 354.8758 61.3 4.256
227.9105 354.8758 61.4 4.256
227.9105 354.8758 61.5 4.256
227.9105 354.8758 61.6 4.256
227.9105 354.8758 61.7 4.256
227.9105 354.8758 61.8 4.256
227.9105 354.8758 61.9 4.256
227.9105 354.8758 62.0 4.256
227.9105 354.8758 62.1 4.256
227.9105 354.8758 62.2 4.256
227.9105 354.8758 62.3 4.256
227.9105 354.8758 62.4 4.256
227.9105 354.8758 62.5 4.256
227.9105 354.8758 62.6 4.256
227.9105 354.8758 62.7 4.256
227.9105 354.8758 62.8 4.256
227.9105 354.8758 62.9 4.256
227.9105 354.8758 63.0 4.256
227.9105 354.8758 63.1 4.256
227.9105 354.8758 63.2 4.256
227.9105 354.8758 63.3 4.256
227.9105 354.8758 63.4 4.256
227.9105 354.8758 63.5 4.256
227.9105 354.8758 63.6 4.256
227.9105 354.8758 63.7 4.256
227.9105 354.8758 63.8 4.256
227.9105 354.8758 63.9 4.256
227.9105 354.8758 64.0 4.256
227.9105 354.8758 64.1 4.256
227.9105 354.8758 64.2 4.256
227.9105 354.8758 64.3 4.256
227.9105 354.8758 64.4 4.256
227.9105 354.8758 64.5 4.256
227.9105 354.8758 64.6 4.256
227.9105 354.8758 64.7 4.256
227.9105 354.8758 64.8 4.256
227.9105 354.8758 64.9 4.256
227.9105 354.8758 65.0 4.256
227.9105 354.8758 65.1 4.256
227.9105 354.8758 65.2 4.256
227.9105 354.8758 65.3 4.256
227.9105 354.8758 65.4 4.256
227.9105 354.8758 65.5 4.256
227.9105 354.8758 65.6 4.256
227.9105 354.8758 65.7 4.256
227.9105 354.8758 65.8 4.256
227.9105 354.8758 65.9 4.256
227.9105 354.8758 66.0 4.256
227.9105 354.8758 66.1 4.256
227.9105 354.8758 66.2 4.256
227.9105 354.8758 66.3 4.256
227.9105 354.8758 66.4 4.256
227.9105 354.8758 66.5 4.256
227.9105 354.8758 66.6 4.256
227.9105 354.8758 66.7 4.256
227.9105 354.8758 66.8 4.256
227.9105 354.8758 66.9 4.256
227.9105 354.8758 67.0 4.256
227.9105 354.8758 67.1 4.256
227.9105 354.8758 67.2 4.256
227.9105 354.8758 67.3 4.8
227.9105 354.8758 67.4 4.8
227.9105 354.8758 67.5 4.8
227.9105 354.8758 67.6 4.8
227.9105 354.8758 67.7 4.8
227.9105 354.8758 67.8 4.8
227.9105 354.8758 67.9 4.8
227.9105 354.8758 68.0 4.8
227.9105 354.8758 68.1 4.8
227.9105 354.8758 68.2 4.8
227.9105 354.8758 68.3 4.8
227.9105 354.8758 68.4 4.8
227.9105 354.8758 68.5 4.8
227.9105 354.8758 68.6 4.8
227.9105 354.8758 68.7 4.8
227.9105 354.8758 68.8 4.8
227.9105 354.8758 68.9 4.8
227.9105 354.8758 69.0 4.8
227.9105 354.8758 69.1 4.8
227.9105 354.8758 69.2 4.8
227.9105 354.8758 69.3 4.8
227.9105 354.8758 69.4 4.8
227.9105 354.8758 69.5 4.8
227.9105 354.8758 69.6 4.8
227.9105 354.8758 69.7 4.8
227.9105 354.8758 69.8 4.8
227.9105 354.8758 69.9 4.8
227.9105 354.8758 70.0 4.8
113.4447 199.9621 -6.0 3.691
113.4447 199.9621 -5.9 3.691
113.4447 199.9621 -5.8 3.691
113.4447 199.9621 -5.7 3.691
113.4447 199.9621 -5.6 3.691
113.4447 199.9621 -5.5 3.691
113.4447 199.9621 -5.4 3.691
113.4447 199.9621 -5.3 3.691
113.4447 199.9621 -5.2 3.691
113.4447 199.9621 -5.1 3.691
113.4447 199.9621 -5.0 3.691
113.4447 199.9621 -4.9 3.691
113.4447 199.9621 -4.8 3.691
113.4447 199.9621 -4.7 3.691
113.4447 199.9621 -4.6 3.691
113.4447 199.9621 -4.5 3.691
113.4447 199.9621 -4.4 3.691
113.4447 199.9621 -4.3 3.691
113.4447 199.9621 -4.2 3.691
113.4447 199.9621 -4.1 3.691
113.4447 199.9621 -4.0 3.691
113.4447 199.9621 -3.9 3.691
113.4447 199.9621 -3.8 3.691
113.4447 199.9621 -3.7 3.691
113.4447 199.9621 -3.6 3.691
113.4447 199.9621 -3.5 3.691
113.4447 199.9621 -3.4 3.691
113.4447 199.9621 -3.3 3.691
113.4447 199.9621 -3.2 3.691
113.4447 199.9621 -3.1 3.691
113.4447 199.9621 -3.0 3.691
113.4447 199.9621 -2.9 3.691
113.4447 199.9621 -2.8 3.691
113.4447 199.9621 -2.7 3.691
113.4447 199.9621 -2.6 3.691
113.4447 199.9621 -2.5 3.691
113.4447 199.9621 -2.4 3.691
113.4447 199.9621 -2.3 3.691
113.4447 199.9621 -2.2 3.691
113.4447 199.9621 -2.1 3.691
113.4447 199.9621 -2.0 3.691
113.4447 199.9621 -1.9 3.691
113.4447 199.9621 -1.8 3.691
113.4447 199.9621 -1.7 3.691
113.4447 199.9621 -1.6 3.691
113.4447 199.9621 -1.5 3.691
113.4447 199.9621 -1.4 3.691
113.4447 199.9621 -1.3 3.691
113.4447 199.9621 -1.2 3.691
113.4447 199.9621 -1.1 3.691
113.4447 199.9621 -1.0 3.691
113.4447 199.9621 -0.9 3.691
113.4447 199.9621 -0.8 3.691
113.4447 199.9621 -0.7 3.691
113.4447 199.9621 -0.6 3.691
113.4447 199.9621 -0.5 3.691
113.4447 199.9621 -0.4 3.691
113.4447 199.9621 -0.3 3.691
113.4447 199.9621 -0.2 3.691
113.4447 199.9621 -0.1 3.691
113.4447 199.9621 0.0 3.691
113.4447 199.9621 0.1 3.691
113.4447 199.9621 0.2 3.691
113.4447 199.9621 0.3 3.691
113.4447 199.9621 0.4 3.691
113.4447 199.9621 0.5 3.691
113.4447 199.9621 0.6 3.691
113.4447 199.9621 0.7 3.691
113.4447 199.9621 0.8 3.691
113.4447 199.9621 0.9 3.691
113.4447 199.9621 1.0 3.691
113.4447 199.9621 1.1 3.691
113.4447 199.9621 1.2 3.691
113.4447 199.9621 1.3 3.691
113.4447 199.9621 1.4 3.691
113.4447 199.9621 1.5 3.691
113.4447 199.9621 1.6 3.691
113.4447 199.9621 1.7 3.691
113.4447 199.9621 1.8 3.691
113.4447 199.9621 1.9 3.691
113.4447 199.9621 2.0 3.691
113.4447 199.9621 2.1 3.577
113.4447 199.9621 2.2 3.577
113.4447 199.9621 2.3 3.577
113.4447 199.9621 2.4 3.577
113.4447 199.9621 2.5 3.577
113.4447 199.9621 2.6 3.577
113.4447 199.9621 2.7 3.577
113.4447 199.9621 2.8 3.577
113.4447 199.9621 2.9 3.577
113.4447 199.9621 3.0 3.577
113.4447 199.9621 3.1 3.577
113.4447 199.9621 3.2 3.577
113.4447 199.9621 3.3 3.577
113.4447 199.9621 3.4 3.577
113.4447 199.9621 3.5 3.577
113.4447 199.9621 3.6 3.577
113.4447 199.9621 3.7 3.577
113.4447 199.9621 3.8 3.577
113.4447 199.9621 3.9 3.577
113.4447 199.9621 4.0 3.577
113.4447 199.9621 4.1 3.577
113.4447 199.9621 4.2 3.577
113.4447 199.9621 4.3 3.577
113.4447 199.9621 4.4 3.577
113.4447 199.9621 4.5 3.577
113.4447 199.9621 4.6 3.577
113.4447 199.9621 4.7 3.577
113.4447 199.9621 4.8 3.577
113.4447 199.9621 4.9 3.577
113.4447 199.9621 5.0 3.577
113.4447 199.9621 5.1 3.577
113.4447 199.9621 5.2 3.577
113.4447 199.9621 5.3 3.577
113.4447 199.9621 5.4 3.577
113.4447 199.9621 5.5 3.577
113.4447 199.9621 5.6 3.577
113.4447 199.9621 5.7 3.577
113.4447 199.9621 5.8 3.577
113.4447 199.9621 5.9 3.577
113.4447 199.9621 6.0 3.577
113.4447 199.9621 6.1 3.577
113.4447 199.9621 6.2 3.577
113.4447 199.9621 6.3 3.577
113.4447 199.9621 6.4 3.577
113.4447 199.9621 6.5 3.577
113.4447 199.9621 6.6 3.577
113.4447 199.9621 6.7 3.577
113.4447 199.9621 6.8 3.577
113.4447 199.9621 6.9 3.577
113.4447 199.9621 7.0 3.577
113.4447 199.9621 7.1 3.577
113.4447 199.9621 7.2 3.577
113.4447 199.9621 7.3 3.577
113.4447 199.9621 7.4 3.577
113.4447 199.9621 7.5 3.577
113.4447 199.9621 7.6 3.577
113.4447 199.9621 7.7 3.577
113.4447 199.9621 7.8 3.577
113.4447 199.9621 7.9 3.577
113.4447 199.9621 8.0 3.577
113.4447 199.9621 8.1 3.577
113.4447 199.9621 8.2 3.577
113.4447 199.9621 8.3 3.577
113.4447 199.9621 8.4 3.577
113.4447 199.9621 8.5 3.577
113.4447 199.9621 8.6 3.577
113.4447 199.9621 8.7 3.577
113.4447 199.9621 8.8 3.577
113.4447 199.9621 8.9 3.577
113.4447 199.9621 9.0 3.577
113.4447 199.9621 9.1 3.577
113.4447 199.9621 9.2 3.577
113.4447 199.9621 9.3 3.577
113.4447 199.9621 9.4 3.577
113.4447 199.9621 9.5 3.577
113.4447 199.9621 9.6 3.577
113.4447 199.9621 9.7 3.577
113.4447 199.9621 9.8 3.577
113.4447 199.9621 9.9 3.577
113.4447 199.9621 10.0 3.577
113.4447 199.9621 10.1 3.577
113.4447 199.9621 10.2 3.577
113.4447 199.9621 10.3 3.577
113.4447 199.9621 10.4 3.577
113.4447 199.9621 10.5 3.577
113.4447 199.9621 10.6 3.577
113.4447 199.9621 10.7 3.577
113.4447 199.9621 10.8 3.577
113.4447 199.9621 10.9 3.577
113.4447 199.9621 11.0 3.577
113.4447 199.9621 11.1 3.577
113.4447 199.9621 11.2 3.577
113.4447 199.9621 11.3 3.577
113.4447 199.9621 11.4 3.577
113.4447 199.9621 11.5 3.577
113.4447 199.9621 11.6 3.577
113.4447 199.9621 11.7 3.577
113.4447 199.9621 11.8 3.577
113.4447 199.9621 11.9 3.577
113.4447 199.9621 12.0 3.577
113.4447 199.9621 12.1 3.577
113.4447 199.9621 12.2 3.577
113.4447 199.9621 12.3 3.577
113.4447 199.9621 12.4 3.577
113.4447 199.9621 12.5 3.577
113.4447 199.9621 12.6 3.577
113.4447 199.9621 12.7 3.577
113.4447 199.9621 12.8 3.577
113.4447 199.9621 12.9 3.577
113.4447 199.9621 13.0 3.577
113.4447 199.9621 13.1 3.577
113.4447 199.9621 13.2 3.577
113.4447 199.9621 13.3 3.577
113.4447 199.9621 13.4 3.577
113.4447 199.9621 13.5 3.577
113.4447 199.9621 13.6 3.577
113.4447 199.9621 13.7 3.577
113.4447 199.9621 13.8 3.577
113.4447 199.9621 13.9 3.577
113.4447 199.9621 14.0 3.577
113.4447 199.9621 14.1 3.577
113.4447 199.9621 14.2 3.577
113.4447 199.9621 14.3 3.577
113.4447 199.9621 14.4 3.577
113.4447 199.9621 14.5 3.577
113.4447 199.9621 14.6 3.577
113.4447 199.9621 14.7 3.577
113.4447 199.9621 14.8 3.577
113.4447 199.9621 14.9 3.577
113.4447 199.9621 15.0 3.577
113.4447 199.9621 15.1 3.577
113.4447 199.9621 15.2 3.674
113.4447 199.9621 15.3 3.674
113.4447 199.9621 15.4 3.674
113.4447 199.9621 15.5 3.674
113.4447 199.9621 15.6 3.674
113.4447 199.9621 15.7 3.674
113.4447 199.9621 15.8 3.674
113.4447 199.9621 15.9 3.674
113.4447 199.9621 16.0 3.674
113.4447 199.9621 16.1 3.674
113.4447 199.9621 16.2 3.674
113.4447 199.9621 16.3 3.674
113.4447 199.9621 16.4 3.674
113.4447 199.9621 16.5 3.674
113.4447 199.9621 16.6 3.674
113.4447 199.9621 16.7 3.674
113.4447 199.9621 16.8 3.674
113.4447 199.9621 16.9 3.674
113.4447 199.9621 17.0 3.674
113.4447 199.9621 17.1 3.674
113.4447 199.9621 17.2 3.674
113.4447 199.9621 17.3 3.674
113.4447 199.9621 17.4 3.674
113.4447 199.9621 17.5 3.674
113.4447 199.9621 17.6 3.674
113.4447 199.9621 17.7 3.674
113.4447 199.9621 17.8 3.674
113.4447 199.9621 17.9 3.674
113.4447 199.9621 18.0 3.674
113.4447 199.9621 18.1 3.674
113.4447 199.9621 18.2 3.674
113.4447 199.9621 18.3 3.674
113.4447 199.9621 18.4 3.674
113.4447 199.9621 18.5 3.674
113.4447 199.9621 18.6 3.674
113.4447 199.9621 18.7 3.674
113.4447 199.9621 18.8 3.674
113.4447 199.9621 18.9 3.674
113.4447 199.9621 19.0 3.674
113.4447 199.9621 19.1 3.674
113.4447 199.9621 19.2 3.674
113.4447 199.9621 19.3 3.674
113.4447 199.9621 19.4 3.674
113.4447 199.9621 19.5 3.674
113.4447 199.9621 19.6 3.674
113.4447 199.9621 19.7 3.674
113.4447 199.9621 19.8 3.674
113.4447 199.9621 19.9 3.674
113.4447 199.9621 20.0 3.674
113.4447 199.9621 20.1 3.674
113.4447 199.9621 20.2 3.674
113.4447 199.9621 20.3 3.674
113.4447 199.9621 20.4 3.674
113.4447 199.9621 20.5 3.674
113.4447 199.9621 20.6 3.674
113.4447 199.9621 20.7 3.674
113.4447 199.9621 20.8 3.674
113.4447 199.9621 20.9 3.674
113.4447 199.9621 21.0 3.674
113.4447 199.9621 21.1 3.674
113.4447 199.9621 21.2 3.674
113.4447 199.9621 21.3 3.674
113.4447 199.9621 21.4 3.674
113.4447 199.9621 21.5 3.674
113.4447 199.9621 21.6 3.674
113.4447 199.9621 21.7 3.674
113.4447 199.9621 21.8 3.674
113.4447 199.9621 21.9 3.674
113.4447 199.9621 22.0 3.674
113.4447 199.9621 22.1 3.674
113.4447 199.9621 22.2 3.674
113.4447 199.9621 22.3 3.674
113.4447 199.9621 22.4 3.674
113.4447 199.9621 22.5 3.674
113.4447 199.9621 22.6 3.674
113.4447 199.9621 22.7 3.674
113.4447 199.9621 22.8 3.674
113.4447 199.9621 22.9 3.674
113.4447 199.9621 23.0 3.674
113.4447 199.9621 23.1 3.674
113.4447 199.9621 23.2 3.674
113.4447 199.9621 23.3 3.674
113.4447 199.9621 23.4 3.674
113.4447 199.9621 23.5 3.674
113.4447 199.9621 23.6 3.674
113.4447 199.9621 23.7 3.674
113.4447 199.9621 23.8 3.674
113.4447 199.9621 23.9 3.674
113.4447 199.9621 24.0 3.674
113.4447 199.9621 24.1 3.674
113.4447 199.9621 24.2 3.674
113.4447 199.9621 24.3 3.674
113.4447 199.9621 24.4 3.674
113.4447 199.9621 24.5 3.674
113.4447 199.9621 24.6 3.674
113.4447 199.9621 24.7 3.674
113.4447 199.9621 24.8 3.674
113.4447 199.9621 24.9 3.674
113.4447 199.9621 25.0 3.674
113.4447 199.9621 25.1 3.674
113.4447 199.9621 25.2 3.674
113.4447 199.9621 25.3 3.674
113.4447 199.9621 25.4 3.674
113.4447 199.9621 25.5 3.674
113.4447 199.9621 25.6 3.674
113.4447 199.9621 25.7 3.674
113.4447 199.9621 25.8 3.674
113.4447 199.9621 25.9 3.674
113.4447 199.9621 26.0 3.674
113.4447 199.9621 26.1 3.674
113.4447 199.9621 26.2 3.674
113.4447 199.9621 26.3 3.674
113.4447 199.9621 26.4 3.674
113.4447 199.9621 26.5 3.674
113.4447 199.9621 26.6 3.674
113.4447 199.9621 26.7 3.674
113.4447 199.9621 26.8 3.674
113.4447 199.9621 26.9 3.674
113.4447 199.9621 27.0 3.674
113.4447 199.9621 27.1 3.674
113.4447 199.9621 27.2 3.674
113.4447 199.9621 27.3 3.674
113.4447 199.9621 27.4 3.674
113.4447 199.9621 27.5 3.674
113.4447 199.9621 27.6 3.674
113.4447 199.9621 27.7 3.674
113.4447 199.9621 27.8 3.674
113.4447 199.9621 27.9 3.674
113.4447 199.9621 28.0 3.674
113.4447 199.9621 28.1 3.674
113.4447 199.9621 28.2 3.674
113.4447 199.9621 28.3 3.674
113.4447 199.9621 28.4 3.674
113.4447 199.9621 28.5 3.674
113.4447 199.9621 28.6 3.674
113.4447 199.9621 28.7 3.674
113.4447 199.9621 28.8 3.674
113.4447 199.9621 28.9 3.674
113.4447 199.9621 29.0 3.674
113.4447 199.9621 29.1 3.674
113.4447 199.9621 29.2 3.937
113.4447 199.9621 29.3 3.937
113.4447 199.9621 29.4 3.937
113.4447 199.9621 29.5 3.937
113.4447 199.9621 29.6 3.937
113.4447 199.9621 29.7 3.937
113.4447 199.9621 29.8 3.937
113.4447 199.9621 29.9 3.937
113.4447 199.9621 30.0 3.937
113.4447 199.9621 30.1 3.937
113.4447 199.9621 30.2 3.937
113.4447 199.9621 30.3 3.937
113.4447 199.9621 30.4 3.937
113.4447 199.9621 30.5 3.937
113.4447 199.9621 30.6 3.937
113.4447 199.9621 30.7 3.937
113.4447 199.9621 30.8 3.937
113.4447 199.9621 30.9 3.937
113.4447 199.9621 31.0 3.937
113.4447 199.9621 31.1 3.937
113.4447 199.9621 31.2 3.937
113.4447 199.9621 31.3 3.937
113.4447 199.9621 31.4 3.937
113.4447 199.9621 31.5 3.937
113.4447 199.9621 31.6 3.937
113.4447 199.9621 31.7 3.937
113.4447 199.9621 31.8 3.937
113.4447 199.9621 31.9 3.937
113.4447 199.9621 32.0 3.937
113.4447 199.9621 32.1 3.937
113.4447 199.9621 32.2 3.937
113.4447 199.9621 32.3 3.937
113.4447 199.9621 32.4 3.937
113.4447 199.9621 32.5 3.937
113.4447 199.9621 32.6 3.937
113.4447 199.9621 32.7 3.937
113.4447 199.9621 32.8 3.937
113.4447 199.9621 32.9 3.937
113.4447 199.9621 33.0 3.937
113.4447 199.9621 33.1 3.937
113.4447 199.9621 33.2 3.937
113.4447 199.9621 33.3 3.937
113.4447 199.9621 33.4 3.937
113.4447 199.9621 33.5 3.937
113.4447 199.9621 33.6 3.937
113.4447 199.9621 33.7 3.937
113.4447 199.9621 33.8 3.937
113.4447 199.9621 33.9 3.937
113.4447 199.9621 34.0 3.937
113.4447 199.9621 34.1 3.937
113.4447 199.9621 34.2 3.937
113.4447 199.9621 34.3 3.937
113.4447 199.9621 34.4 3.937
113.4447 199.9621 34.5 3.937
113.4447 199.9621 34.6 3.937
113.4447 199.9621 34.7 3.937
113.4447 199.9621 34.8 3.937
113.4447 199.9621 34.9 3.937
113.4447 199.9621 35.0 3.937
113.4447 199.9621 35.1 3.937
113.4447 199.9621 35.2 3.937
113.4447 199.9621 35.3 3.937
113.4447 199.9621 35.4 3.937
113.4447 199.9621 35.5 3.937
113.4447 199.9621 35.6 3.937
113.4447 199.9621 35.7 3.937
113.4447 199.9621 35.8 3.937
113.4447 199.9621 35.9 3.937
113.4447 199.9621 36.0 3.937
113.4447 199.9621 36.1 3.937
113.4447 199.9621 36.2 3.937
113.4447 199.9621 36.3 3.937
113.4447 199.9621 36.4 3.937
113.4447 199.9621 36.5 3.937
113.4447 199.9621 36.6 3.937
113.4447 199.9621 36.7 3.937
113.4447 199.9621 36.8 3.937
113.4447 199.9621 36.9 3.937
113.4447 199.9621 37.0 3.937
113.4447 199.9621 37.1 3.937
113.4447 199.9621 37.2 3.937
113.4447 199.9621 37.3 3.937
113.4447 199.9621 37.4 3.937
113.4447 199.9621 37.5 3.937
113.4447 199.9621 37.6 3.937
113.4447 199.9621 37.7 3.937
113.4447 199.9621 37.8 3.937
113.4447 199.9621 37.9 3.937
113.4447 199.9621 38.0 3.937
113.4447 199.9621 38.1 3.937
113.4447 199.9621 38.2 3.937
113.4447 199.9621 38.3 3.937
113.4447 199.9621 38.4 3.937
113.4447 199.9621 38.5 3.937
113.4447 199.9621 38.6 3.937
113.4447 199.9621 38.7 3.937
113.4447 199.9621 38.8 3.937
113.4447 199.9621 38.9 3.937
113.4447 199.9621 39.0 3.937
113.4447 199.9621 39.1 3.937
113.4447 199.9621 39.2 3.937
113.4447 199.9621 39.3 3.937
113.4447 199.9621 39.4 3.937
113.4447 199.9621 39.5 3.937
113.4447 199.9621 39.6 3.937
113.4447 199.9621 39.7 3.937
113.4447 199.9621 39.8 3.937
113.4447 199.9621 39.9 3.937
113.4447 199.9621 40.0 3.937
113.4447 199.9621 40.1 3.937
113.4447 199.9621 40.2 3.937
113.4447 199.9621 40.3 3.937
113.4447 199.9621 40.4 3.937
113.4447 199.9621 40.5 3.937
113.4447 199.9621 40.6 3.937
113.4447 199.9621 40.7 3.937
113.4447 199.9621 40.8 3.937
113.4447 199.9621 40.9 3.937
113.4447 199.9621 41.0 3.937
113.4447 199.9621 41.1 3.937
113.4447 199.9621 41.2 3.937
113.4447 199.9621 41.3 3.937
113.4447 199.9621 41.4 3.937
113.4447 199.9621 41.5 3.937
113.4447 199.9621 41.6 3.937
113.4447 199.9621 41.7 3.937
113.4447 199.9621 41.8 3.937
113.4447 199.9621 41.9 3.937
113.4447 199.9621 42.0 3.937
113.4447 199.9621 42.1 4.174
113.4447 199.9621 42.2 4.174
113.4447 199.9621 42.3 4.174
113.4447 199.9621 42.4 4.174
113.4447 199.9621 42.5 4.174
113.4447 199.9621 42.6 4.174
113.4447 199.9621 42.7 4.174
113.4447 199.9621 42.8 4.174
113.4447 199.9621 42.9 4.174
113.4447 199.9621 43.0 4.174
113.4447 199.9621 43.1 4.174
113.4447 199.9621 43.2 4.174
113.4447 199.9621 43.3 4.174
113.4447 199.9621 43.4 4.174
113.4447 199.9621 43.5 4.174
113.4447 199.9621 43.6 4.174
113.4447 199.9621 43.7 4.174
113.4447 199.9621 43.8 4.174
113.4447 199.9621 43.9 4.174
113.4447 199.9621 44.0 4.174
113.4447 199.9621 44.1 4.174
113.4447 199.9621 44.2 4.174
113.4447 199.9621 44.3 4.174
113.4447 199.9621 44.4 4.174
113.4447 199.9621 44.5 4.174
113.4447 199.9621 44.6 4.174
113.4447 199.9621 44.7 4.174
113.4447 199.9621 44.8 4.174
113.4447 199.9621 44.9 4.174
113.4447 199.9621 45.0 4.174
113.4447 199.9621 45.1 4.174
113.4447 199.9621 45.2 4.174
113.4447 199.9621 45.3 4.174
113.4447 199.9621 45.4 4.174
113.4447 199.9621 45.5 4.174
113.4447 199.9621 45.6 4.174
113.4447 199.9621 45.7 4.174
113.4447 199.9621 45.8 4.174
113.4447 199.9621 45.9 4.174
113.4447 199.9621 46.0 4.174
113.4447 199.9621 46.1 4.174
113.4447 199.9621 46.2 4.174
113.4447 199.9621 46.3 4.174
113.4447 199.9621 46.4 4.174
113.4447 199.9621 46.5 4.174
113.4447 199.9621 46.6 4.174
113.4447 199.9621 46.7 4.174
113.4447 199.9621 46.8 4.174
113.4447 199.9621 46.9 4.174
113.4447 199.9621 47.0 4.174
113.4447 199.9621 47.1 4.174
113.4447 199.9621 47.2 4.174
113.4447 199.9621 47.3 4.174
113.4447 199.9621 47.4 4.174
113.4447 199.9621 47.5 4.174
113.4447 199.9621 47.6 4.174
113.4447 199.9621 47.7 4.174
113.4447 199.9621 47.8 4.174
113.4447 199.9621 47.9 4.174
113.4447 199.9621 48.0 4.174
113.4447 199.9621 48.1 4.174
113.4447 199.9621 48.2 4.174
113.4447 199.9621 48.3 4.174
113.4447 199.9621 48.4 4.174
113.4447 199.9621 48.5 4.174
113.4447 199.9621 48.6 4.174
113.4447 199.9621 48.7 4.174
113.4447 199.9621 48.8 4.174
113.4447 199.9621 48.9 4.174
113.4447 199.9621 49.0 4.174
113.4447 199.9621 49.1 4.174
113.4447 199.9621 49.2 4.174
113.4447 199.9621 49.3 4.174
113.4447 199.9621 49.4 4.174
113.4447 199.9621 49.5 4.174
113.4447 199.9621 49.6 4.174
113.4447 199.9621 49.7 4.174
113.4447 199.9621 49.8 4.174
113.4447 199.9621 49.9 4.174
113.4447 199.9621 50.0 4.174
113.4447 199.9621 50.1 4.174
113.4447 199.9621 50.2 4.174
113.4447 199.9621 50.3 4.174
113.4447 199.9621 50.4 4.174
